17.2761 37.7566 177.487
17.2757 37.9235 177.485
17.2374 38.0084 177.093
17.2749 38.2573 177.481
17.2745 38.4242 177.479
17.2741 38.5911 177.477
17.2737 38.758 177.474
17.2733 38.9249 177.472
17.2729 39.0918 177.47
17.2346 39.1742 177.077
17.2341 39.3407 177.075
17.2337 39.5073 177.073
17.2712 39.7594 177.461
17.2708 39.9263 177.459
17.2325 40.0069 177.067
17.2359 40.2526 177.058
17.2355 40.4191 177.055
17.2351 40.5857 177.053
17.2347 40.7522 177.051
17.4049 40.9122 177.05
17.2718 41.174 177.437
17.3704 41.0694 176.652
17.1582 41.075 176.268
17.37 41.2355 176.65
17.1909 41.4168 176.658
17.3273 41.4001 176.266
17.2323 41.7516 177.038
17.3688 41.734 176.643
17.236 41.9971 177.029
17.3726 41.9789 176.634
17.1974 42.2393 176.635
17.3718 42.3113 176.629
17.197 42.4055 176.633
17.3714 42.4774 176.627
17.1966 42.5717 176.631
17.371 42.6436 176.625
17.1962 42.7379 176.629
17.4087 42.9019 177.011
17.2335 42.9965 177.015
17.3281 42.8053 176.241
17.3091 43.3498 177.796
17.3277 42.9712 176.239
17.3087 43.5171 177.794
17.2895 43.0447 175.851
17.3082 43.6844 177.792
15.705 -31.4861 192.018
15.4481 -31.1708 191.123
15.6725 -31.1413 191.555
15.6361 -30.8915 191.103
15.6362 -30.7131 191.1
15.783 -30.4574 190.643
15.7831 -30.2795 190.64
15.6366 -30.178 191.091
15.6367 -29.9997 191.087
15.6368 -29.8213 191.084
15.6369 -29.6429 191.081
15.637 -29.4646 191.078
15.6372 -29.2862 191.075
15.6373 -29.1079 191.072
15.5303 -29.1556 191.969
15.5304 -28.9764 191.966
15.6741 -28.8173 191.514
15.6742 -28.6385 191.511
15.5267 -28.5324 191.966
15.5672 -28.5045 192.41
15.5673 -28.3249 192.407
15.5673 -28.1453 192.403
15.4151 -27.9514 192.868
15.5674 -27.9657 192.4
15.4152 -27.7713 192.865
15.56 -27.6144 192.409
15.4115 -27.5051 192.868
15.5565 -27.3488 192.411
15.4481 -27.3885 193.322
15.4117 -27.1449 192.862
15.452 -27.1138 193.31
15.452 -26.9333 193.307
15.4521 -26.7528 193.304
15.4522 -26.5723 193.301
15.4522 -26.3918 193.298
15.4523 -26.2113 193.295
15.489 -26.0914 193.751
15.3029 -25.917 193.756
15.2994 -25.6494 193.758
15.2994 -25.4684 193.755
15.2995 -25.2874 193.752
15.336 -25.1651 194.211
15.1855 -25.0485 194.679
15.1855 -24.8667 194.676
15.1856 -24.6848 194.673
15.222 -24.5604 195.136
15.222 -24.3782 195.133
15.222 -24.1959 195.13
16.0663 -21.2128 187.418
16.0663 -21.0378 187.415
16.2093 -20.8106 186.976
16.0663 -20.6877 187.409
16.1722 -20.5898 186.545
16.0295 -20.4666 186.976
16.1722 -20.2414 186.54
16.1722 -20.0672 186.537
16.1722 -19.893 186.534
16.3143 -19.6698 186.099
16.3142 -19.496 186.096
17.2159 -17.799 182.285
17.0011 -17.0936 178.307
17.0408 -17.0437 178.692
17.0407 -16.8769 178.689
17.3111 -16.5442 177.892
17.2734 -16.3434 177.502
17.2358 -16.1433 177.113
17.1984 -15.9441 176.726
17.1587 -15.6666 176.344
17.3285 -15.6626 176.34
17.1587 -15.5019 176.341
17.3284 -15.4981 176.338
17.1586 -15.3373 176.338
17.3284 -15.3335 176.335
17.1586 -15.1727 176.336
17.3283 -15.1689 176.332
17.1585 -15.0081 176.333
17.1584 -14.8435 176.33
17.2907 -14.6442 175.943
17.3281 -14.5106 176.321
17.3454 -14.1434 174.804
17.2905 -14.1515 175.935
17.4222 -13.9542 175.549
17.4221 -13.7903 175.547
17.422 -13.6265 175.544
17.3845 -13.4343 175.164
17.3844 -13.2708 175.161
17.3449 -13.0012 174.785
17.3449 -12.838 174.782
17.3448 -12.6748 174.779
17.3447 -12.5116 174.777
17.513 -12.5084 174.773
17.3445 -12.1853 174.771
17.3817 -12.0474 175.145
17.3072 -11.8341 174.391
17.419 -11.745 175.517
17.5501 -11.5537 175.133
17.4188 -11.4173 175.512
17.4748 -11.3426 174.38
17.3439 -11.2062 174.755
17.4374 -11.1564 174.005
17.4186 -11.0895 175.506
17.4372 -10.9939 174.002
17.4185 -10.9257 175.504
17.4745 -10.8541 174.372
17.3809 -10.7392 175.123
17.5101 -10.6351 174.746
17.379 -10.4967 175.123
17.4708 -10.3714 174.371
17.3382 -10.1541 174.748
16.7086 -6.4389 182.553
16.4306 -6.29998 183.382
16.5326 -6.27026 182.554
16.4305 -6.12849 183.379
16.5325 -6.09957 182.551
16.4304 -5.95701 183.377
16.5324 -5.92887 182.549
16.4302 -5.78552 183.374
16.5322 -5.75817 182.546
16.4301 -5.61403 183.371
16.5321 -5.58747 182.543
16.3917 -5.34779 182.957
16.5691 -5.4287 182.952
16.4285 -5.18811 183.367
16.5294 -5.08096 182.54
16.3902 -4.92279 182.953
16.5665 -4.92107 182.949
16.3901 -4.75167 182.95
16.5664 -4.74998 182.946
16.39 -4.58054 182.947
16.5662 -4.5789 182.944
16.3899 -4.40942 182.945
16.5661 -4.40781 182.941
16.4268 -4.24766 183.355
16.6034 -4.24607 183.351
16.4638 -4.08518 183.767
16.5648 -3.98286 182.936
16.5 -3.83864 184.182
16.4989 -3.58302 184.18
16.4243 -3.39566 183.346
16.4614 -3.23129 183.758
16.4613 -3.05939 183.756
16.4611 -2.88749 183.753
16.461 -2.7156 183.75
16.4609 -2.54369 183.747
16.3207 -2.37824 184.165
16.4228 -2.28354 183.33
16.3206 -2.20592 184.163
16.4599 -2.1167 183.743
16.4598 -1.94479 183.74
16.4978 -1.8602 184.153
16.3202 -1.68896 184.155
16.4224 -1.59743 183.32
16.3572 -1.52001 184.571
16.4223 -1.4259 183.317
16.3571 -1.3473 184.568
16.253 -1.1808 185.413
16.2822 -1.08614 183.73
16.179 -1.00279 184.566
16.3941 -1.00412 184.983
16.2907 -0.919821 185.831
16.1794 -0.74094 184.561
16.2538 -0.65474 185.401
16.075 -0.482062 185.402
16.0748 -0.308507 185.4
16.0045 0.0326714 186.682
16.1838 0.117993 186.678
16.0778 0.293405 187.542
16.0406 0.467916 187.107
16.8879 0.548814 184.529
16.0776 0.64454 187.537
16.0404 0.818261 187.102
16.0778 0.910651 187.532
16.0405 1.08377 187.096
16.0779 1.17676 187.526
16.0407 1.34927 187.091
16.0405 1.52444 187.088
16.0403 1.69962 187.086
16.0401 1.8748 187.083
16.077 2.05463 187.513
16.0768 2.23021 187.511
16.0766 2.40579 187.508
16.0764 2.58137 187.505
16.0391 2.75072 187.07
16.076 2.93254 187.5
15.8952 3.10801 187.502
15.8949 3.28363 187.499
16.0382 3.36115 187.062
15.9313 3.5524 187.931
16.0378 3.62122 187.059
15.8941 3.80507 187.493
16.4549 3.89315 191.924
15.149 5.18714 196.61
15.2644 5.07336 195.656
15.1121 5.35867 196.132
15.3381 5.37107 196.602
15.1854 5.56898 197.083
15.1178 5.65326 193.777
15.1903 5.77395 194.706
15.3041 5.92805 193.767
15.3039 6.10969 193.765
15.4166 6.26141 192.835
15.3034 6.38492 193.76
15.4164 6.44216 192.832
15.3032 6.56655 193.758
15.4162 6.62291 192.83
15.303 6.74819 193.755
15.4528 6.81958 193.287
16.4082 7.51138 210.319
15.3029 7.01787 193.752
16.3657 7.6888 209.775
15.2661 7.18266 193.287
16.4077 7.90522 210.314
13.1717 12.5566 217.219
12.9992 12.8876 214.331
13.2056 12.8855 214.323
13.1705 13.0529 213.754
13.2709 13.1492 212.061
13.4397 13.312 211.496
13.4395 13.5107 211.493
13.4667 13.7295 208.75
13.6678 13.7273 208.743
13.5355 13.901 209.833
13.6324 13.8882 208.203
13.7018 14.06 209.281
15.1 17.302 195.964
15.1351 17.4384 196.44
15.0982 17.5809 195.961
15.2497 17.72 195.481
15.2494 17.9035 195.478
15.2491 18.087 195.476
15.1768 18.2726 194.529
15.3271 18.4089 194.056
15.3268 18.5911 194.054
15.5497 19.4944 192.186
15.6973 19.6259 191.724
15.5491 19.8552 192.181
15.6967 19.9858 191.719
15.6964 20.1658 191.717
15.6236 20.3382 190.805
15.5865 20.4699 190.353
15.7323 20.7761 189.898
15.732 20.9544 189.896
15.84 21.2099 188.999
15.8027 21.3384 188.556
15.8024 21.5154 188.553
15.7653 21.643 188.111
15.8018 21.8696 188.548
15.8015 22.0466 188.546
15.9829 22.2201 188.541
16.1552 24.4958 186.325
16.1549 24.6708 186.322
16.1546 24.8458 186.32
16.2592 24.7299 185.462
16.1171 24.9643 185.888
16.2962 24.9603 185.887
16.0797 25.0823 185.459
16.2585 25.0783 185.457
16.2209 25.1958 185.03
16.2206 25.3695 185.027
16.2202 25.5433 185.025
16.2199 25.7171 185.023
16.2195 25.8909 185.02
16.1821 26.0063 184.595
16.3224 26.117 184.17
16.3221 26.29 184.167
16.3613 26.6057 184.582
16.3237 26.7192 184.158
16.3234 26.8922 184.156
16.323 27.0652 184.154
16.3884 26.8805 182.9
16.36 27.2992 184.573
16.3881 27.0524 182.898
16.4623 27.3456 183.728
16.4246 27.4569 183.309
16.4242 27.6291 183.306
16.4239 27.8013 183.304
16.4235 27.9736 183.302
16.386 28.0833 182.884
16.3856 28.2551 182.881
16.3853 28.4269 182.879
16.5616 28.4223 182.878
16.5238 28.5308 182.462
16.5234 28.7022 182.46
16.4858 28.8098 182.046
16.4854 28.9809 182.044
16.6632 29.2293 182.036
16.6628 29.4003 182.033
16.625 29.5061 181.621
16.7245 29.5417 180.804
16.6243 29.8474 181.617
16.5866 29.952 181.206
16.5862 30.1223 181.204
16.5859 30.2926 181.202
16.6857 30.155 180.39
16.7227 30.3911 180.793
16.6849 30.494 180.386
16.7219 30.7308 180.788
16.7215 30.9007 180.786
16.6838 31.0025 180.379
16.6834 31.172 180.377
16.683 31.3416 180.374
16.6827 31.5111 180.372
16.6823 31.6806 180.37
16.6819 31.8501 180.368
16.6815 32.0196 180.365
16.5442 32.265 180.768
16.7185 32.2598 180.768
16.7211 32.5111 180.76
16.6834 32.6094 180.353
16.8565 32.9431 180.349
16.8561 33.1126 180.346
16.8181 33.2094 179.941
16.7803 33.3057 179.538
16.78 33.4745 179.536
16.7796 33.6433 179.534
16.7792 33.812 179.531
16.7788 33.9808 179.529
16.7784 34.1496 179.527
16.778 34.3184 179.525
16.8792 34.2441 178.722
16.7436 34.4926 179.117
16.7433 34.661 179.115
16.8551 35.0583 180.316
16.8781 34.7482 178.716
16.9152 34.9922 179.111
16.8773 35.0842 178.711
16.9144 35.3289 179.107
16.914 35.4973 179.104
16.9136 35.6657 179.102
17.01 35.8407 178.305
17.0472 36.0865 178.698
17.0092 36.176 178.301
17.0088 36.3437 178.298
17.0084 36.5113 178.296
16.9705 36.5997 177.9
16.9701 36.7669 177.898
16.9697 36.9342 177.896
17.0068 37.1819 178.287
17.0064 37.3496 178.285
16.9685 37.4361 177.889
16.9681 37.6034 177.887
16.9677 37.7707 177.885
17.0635 37.7687 177.1
17.0631 37.9352 177.098
16.9291 38.19 177.486
16.9287 38.357 177.483
17.1034 38.4304 177.478
16.932 38.6034 177.475
17.1026 38.7642 177.474
17.1022 38.9311 177.471
17.0643 39.0139 177.079
17.0639 39.1804 177.076
17.101 39.4319 177.465
17.1006 39.5988 177.463
17.0626 39.6801 177.07
17.0622 39.8467 177.068
17.199 39.8337 176.673
17.0283 40.0063 176.67
17.2025 40.0789 176.664
17.0649 40.4256 177.054
17.0685 40.6712 177.045
17.1634 40.6562 176.268
17.2006 40.9097 176.653
17.1586 40.9092 176.271
17.1958 41.1633 176.656
17.1538 41.1622 176.273
17.1534 41.328 176.271
17.1905 41.5831 176.656
17.1151 41.5706 175.881
17.0608 42.0914 177.032
17.0604 42.258 177.03
17.1929 42.3267 176.64
17.1924 42.4929 176.638
17.192 42.6592 176.636
17.1916 42.8254 176.634
17.0579 43.2577 177.017
16.9613 43.6191 177.796
16.9609 43.7865 177.794
16.8817 43.6855 177.016
16.7649 44.6897 179.372
16.8958 44.5055 178.982
15.376 -32.0193 192.486
15.3762 -31.8396 192.483
15.4478 -31.5276 191.129
15.3402 -31.5869 192.026
15.448 -31.3492 191.126
15.3403 -31.4076 192.023
15.4481 -31.1708 191.123
15.3405 -31.2284 192.02
15.4568 -30.6272 191.098
15.5635 -30.3952 190.206
15.4569 -30.4489 191.094
15.5637 -30.2177 190.203
15.457 -30.2705 191.091
15.6001 -30.1089 190.644
15.6002 -29.931 190.641
15.4532 -29.8286 191.091
15.3055 -29.7257 191.543
15.3056 -29.5468 191.54
15.4496 -29.3866 191.091
15.3019 -29.2826 191.543
15.4459 -29.1231 191.093
15.446 -28.9446 191.09
15.3381 -28.9916 191.988
15.3382 -28.8123 191.985
15.3383 -28.6331 191.981
15.3384 -28.4538 191.978
15.3386 -28.2745 191.975
15.3387 -28.0953 191.972
15.3388 -27.916 191.969
15.1901 -27.8077 192.426
15.2298 -27.7782 192.872
15.194 -27.5342 192.414
15.1941 -27.3545 192.411
15.0803 -27.3079 193.327
15.2661 -27.3011 193.32
15.2301 -27.0577 192.86
15.2663 -26.94 193.314
15.2663 -26.7595 193.311
15.1164 -26.6475 193.775
15.2303 -26.5173 192.851
15.1165 -26.4665 193.772
15.1165 -26.2855 193.769
15.1166 -26.1045 193.766
15.113 -25.8368 193.768
15.1131 -25.6558 193.765
15.1132 -25.4748 193.762
15.1132 -25.2938 193.759
14.9626 -25.1777 194.224
15.1493 -25.1714 194.218
14.9626 -24.9962 194.221
14.8112 -24.8791 194.689
14.9984 -24.8729 194.683
14.8467 -24.7552 195.153
14.995 -24.6038 194.685
14.8433 -24.4854 195.155
14.9917 -24.3346 194.687
14.879 -24.3602 195.621
15.8861 -21.3931 187.427
16.0693 -21.4718 187.417
15.8496 -21.1704 186.993
15.9898 -21.034 186.564
15.8467 -20.9118 186.995
15.9534 -20.6392 186.131
15.9928 -20.5949 186.551
15.9928 -20.4207 186.548
15.9928 -20.2465 186.545
15.9563 -20.0273 186.116
15.9562 -19.8535 186.113
17.0027 -18.1042 181.89
16.7704 -17.4609 179.493
16.6943 -17.1387 178.706
17.1171 -15.3111 175.966
17.0802 -15.1148 175.583
16.9865 -15.0972 176.342
17.0802 -14.9509 175.58
16.9865 -14.9326 176.339
17.0801 -14.787 175.578
16.911 -14.6266 175.578
17.0433 -14.4286 175.194
17.08 -14.2952 175.569
17.175 -14.0683 174.809
17.082 -14.0462 175.561
17.1749 -13.9051 174.807
17.082 -13.8823 175.558
17.1749 -13.7419 174.804
17.0819 -13.7184 175.556
17.1768 -13.4941 174.796
17.1767 -13.3309 174.793
17.3079 -13.1368 174.413
17.1766 -13.0045 174.788
17.3058 -12.8955 174.413
17.1745 -12.7626 174.787
17.2668 -12.6277 174.039
17.1725 -12.5207 174.787
17.1725 -12.3575 174.784
17.1338 -12.0902 174.409
16.2538 -6.13049 183.383
16.3553 -6.01898 182.556
16.2537 -5.95897 183.38
16.3552 -5.84825 182.554
16.2536 -5.78744 183.378
16.3551 -5.67751 182.551
16.2155 -5.52075 182.963
16.3931 -5.60167 182.958
16.2154 -5.34961 182.96
16.3917 -5.34779 182.957
16.2153 -5.17845 182.958
16.2151 -5.0073 182.955
16.215 -4.83615 182.952
16.3913 -4.83444 182.949
16.2149 -4.665 182.95
16.3911 -4.66332 182.946
16.2147 -4.49384 182.947
16.391 -4.4922 182.943
16.2146 -4.32269 182.944
16.3908 -4.32108 182.941
16.251 -4.1607 183.355
16.2509 -3.98917 183.352
16.2507 -3.81763 183.35
16.2506 -3.64609 183.347
16.2504 -3.47455 183.344
16.1466 -3.31908 184.177
16.1464 -3.14674 184.175
16.1462 -2.9744 184.172
16.1461 -2.80206 184.169
16.1084 -2.54065 183.75
16.1083 -2.36868 183.748
16.1081 -2.19672 183.745
16.1445 -2.02924 184.16
16.1811 -1.86102 184.576
16.1076 -1.68081 183.737
16.1074 -1.50884 183.735
16.0027 -1.34381 184.571
16.1431 -1.25638 184.15
16.0757 -1.17627 185.413
16.0756 -1.00272 185.41
15.9331 -0.831931 185.836
16.0022 -0.825487 184.564
15.933 -0.657955 185.833
15.7899 -0.485901 186.261
15.9321 -0.399712 185.831
15.7891 -0.22701 186.259
15.6821 -0.138471 187.119
15.7889 -0.0526011 186.256
15.6813 0.121658 187.117
15.8983 0.122651 187.546
15.6459 0.213248 188.862
15.6811 0.296894 187.114
16.5716 0.297562 184.958
16.6733 0.380275 184.115
15.7173 0.473205 187.545
15.8246 0.646508 186.674
15.8609 0.82318 187.103
15.6804 0.997848 187.104
15.7166 1.17576 187.534
15.7164 1.3514 187.531
15.8602 1.52401 187.092
15.7156 1.78779 187.526
15.8227 1.86478 186.659
15.8225 2.0396 186.656
15.7152 2.13909 187.521
15.6788 2.3095 187.085
15.8591 2.30976 187.082
15.6786 2.48475 187.082
15.8589 2.48498 187.079
15.6784 2.66001 187.08
15.8587 2.6602 187.076
15.8587 2.92575 187.071
15.7145 3.10789 187.505
15.7143 3.28355 187.503
15.6775 3.53631 187.067
15.6773 3.71157 187.064
15.6771 3.88684 187.061
14.923 5.54291 196.134
15.112 5.4534 196.13
14.8953 5.90962 193.314
15.1175 6.10466 193.77
15.0813 6.27162 193.305
15.1171 6.37993 193.766
15.0808 6.54625 193.3
15.1166 6.65521 193.761
15.0803 6.82087 193.296
15.1161 6.93048 193.757
15.0798 7.09551 193.292
16.164 7.88631 209.785
12.9306 12.8208 213.2
12.9638 12.9575 213.764
12.9294 13.1242 213.197
13.0325 13.1174 211.513
13.0656 13.2538 212.068
13.2699 13.2518 212.061
13.0312 13.4185 211.509
13.3 13.7665 209.297
13.5005 13.8656 209.29
13.4654 14.0266 208.746
13.3959 14.1509 207.67
13.596 14.1487 207.664
13.464 14.3237 208.743
13.5958 14.3438 207.662
13.6297 14.4808 208.197
13.7603 14.5 207.121
13.6294 14.6764 208.194
13.7249 14.6577 206.588
13.6896 14.8146 206.059
13.8881 14.8123 206.053
14.4861 16.7357 197.91
14.6408 16.8784 197.42
14.6405 17.0638 197.417
14.7943 17.2052 196.929
14.64 17.4346 197.412
14.7579 17.5332 196.445
14.9453 17.8101 196.439
14.8727 17.9092 195.486
14.8724 18.0927 195.483
14.8018 18.2784 194.536
14.9531 18.4147 194.063
15.1035 18.5503 193.592
15.0304 19.1874 192.658
15.2161 19.1843 192.655
15.3275 19.8122 191.728
15.3272 19.9923 191.725
15.2906 20.1255 191.268
15.403 20.4732 190.355
15.5496 20.6011 189.903
15.4762 20.8616 189.009
15.5122 21.0875 189.45
15.5119 21.2654 189.447
15.5116 21.4434 189.445
15.6203 21.696 188.553
15.5833 21.9998 188.108
15.6194 22.2272 188.546
15.9385 24.6191 185.894
15.9382 24.7937 185.892
15.9379 24.9684 185.89
15.9009 25.0864 185.46
15.9006 25.2606 185.457
15.9002 25.4348 185.455
15.8635 25.5515 185.027
16.0045 25.837 184.598
16.0041 26.0105 184.596
16.0034 26.3574 184.591
16.0031 26.5308 184.589
16.0027 26.7042 184.586
16.1094 26.6639 183.74
16.1458 26.8965 184.157
16.1455 27.0695 184.155
16.182 27.3036 184.574
16.1817 27.477 184.571
16.1814 27.6505 184.569
16.1441 27.7617 184.145
16.1045 27.7893 183.728
16.1066 28.045 183.721
16.21 27.9159 182.887
16.2096 28.0878 182.884
16.2093 28.2596 182.882
16.2089 28.4315 182.88
16.2086 28.6033 182.877
16.3106 28.6434 182.049
16.2735 28.7509 181.636
16.3125 29.0677 182.039
16.2755 29.1742 181.626
16.4502 29.3402 181.624
16.3115 29.5809 182.032
16.4126 29.6162 181.211
16.4122 29.7865 181.209
16.4119 29.9568 181.206
16.4115 30.1271 181.204
16.4111 30.2974 181.202
16.5483 30.396 180.793
16.511 30.4989 180.386
16.5106 30.6684 180.383
16.3729 30.9106 180.786
16.5501 30.9871 180.781
16.4122 31.2306 181.185
16.5127 31.0888 180.374
16.5494 31.3269 180.776
16.512 31.4278 180.369
16.5117 31.5974 180.367
16.4108 31.9119 181.176
16.4104 32.0822 181.173
16.5109 31.9364 180.362
16.41 32.2525 181.171
16.5106 32.106 180.36
16.5472 32.3464 180.762
16.5068 32.3639 180.361
16.6462 32.5381 179.95
16.5091 32.7842 180.351
16.6454 32.8764 179.946
16.645 33.0456 179.943
16.6076 33.1422 179.54
16.5704 33.2385 179.138
16.6069 33.4798 179.535
16.7459 33.4822 179.131
16.5728 33.6559 179.128
16.6093 33.8982 179.525
16.708 33.7455 178.729
16.6089 34.0669 179.523
16.7073 34.0816 178.724
16.7069 34.2496 178.722
16.7065 34.4176 178.72
16.7062 34.5857 178.717
16.7058 34.7537 178.715
16.7054 34.9217 178.713
16.705 35.0898 178.711
16.7046 35.2578 178.708
16.6673 35.3491 178.31
16.7039 35.5939 178.704
16.7035 35.762 178.702
16.6662 35.8521 178.303
16.6658 36.0198 178.301
16.8373 36.1818 178.3
16.7019 36.4342 178.693
16.7963 36.191 177.91
16.7994 36.4381 177.901
16.6274 36.6112 177.898
16.6638 36.8583 178.29
16.6634 37.026 178.288
16.7612 36.8603 177.502
16.8013 37.1872 177.886
16.801 37.3545 177.884
16.76 37.3612 177.495
16.7596 37.5282 177.493
16.7592 37.6951 177.491
16.7588 37.8621 177.489
16.7584 38.0291 177.486
16.8915 38.2744 177.093
16.8911 38.441 177.09
16.8944 38.6868 177.082
16.857 38.7699 176.69
16.8936 39.02 177.077
16.8932 39.1866 177.075
16.8928 39.3532 177.073
16.8924 39.5198 177.071
16.8919 39.6864 177.068
16.8915 39.853 177.066
16.8541 39.9335 176.675
16.8537 40.0998 176.673
16.8903 40.3528 177.06
16.8899 40.5194 177.057
16.8525 40.5985 176.666
16.856 40.8437 176.657
16.8556 41.01 176.655
16.8552 41.1762 176.652
16.8548 41.3425 176.65
17.0292 41.4149 176.645
16.8955 41.6772 177.03
16.854 41.675 176.646
16.8906 41.9314 177.033
16.8491 41.9286 176.649
16.8898 42.2646 177.028
16.7788 42.1586 175.863
16.9896 42.3212 176.244
16.8932 42.6769 177.017
17.026 42.7446 176.627
16.8511 42.8388 176.63
17.0256 42.9109 176.625
16.8507 43.0051 176.628
17.0626 43.1699 177.012
16.9833 43.072 176.241
16.813 43.2446 176.236
16.831 43.9678 178.179
16.6958 44.2385 178.571
15.229 -30.9288 190.679
15.1937 -30.6804 190.23
15.2333 -30.6576 190.666
15.198 -30.4099 190.218
15.2376 -30.3865 190.654
15.2022 -30.1394 190.206
15.2023 -29.9618 190.202
15.2379 -29.8524 190.644
15.238 -29.6744 190.641
15.2738 -29.5641 191.085
15.2739 -29.3857 191.082
15.274 -29.2073 191.079
15.274 -29.0289 191.076
15.1259 -28.9239 191.528
15.126 -28.745 191.525
15.126 -28.5662 191.522
15.1223 -28.3018 191.524
15.0087 -28.26 192.432
15.0443 -28.1454 192.885
15.0089 -27.9005 192.426
14.9736 -27.6567 191.969
15.009 -27.541 192.42
15.0446 -27.4247 192.873
15.0447 -27.2445 192.869
14.8945 -27.134 193.331
15.0092 -27.0017 192.411
14.8946 -26.9534 193.327
15.0093 -26.822 192.408
15.0449 -26.704 192.86
14.8947 -26.5921 193.321
14.9302 -26.292 193.775
14.8913 -25.9637 193.317
14.7404 -25.8496 193.781
14.9268 -25.8432 193.775
14.7405 -25.6685 193.778
14.7406 -25.4874 193.775
14.7757 -25.3655 194.234
14.7407 -25.1252 193.768
14.7759 -25.0024 194.228
14.8467 -24.9376 195.156
14.8113 -24.6972 194.686
14.6591 -24.579 195.156
14.776 -24.4579 194.218
15.6697 -21.6997 187.007
15.6338 -21.4767 186.576
15.6338 -21.3024 186.573
15.6338 -21.1281 186.57
15.7772 -20.9017 186.135
15.6338 -20.7794 186.564
15.7383 -20.5982 185.712
15.6338 -20.6051 186.561
15.7772 -20.3801 186.126
15.7772 -20.2062 186.123
15.6338 -20.0822 186.552
15.8808 -19.8549 185.272
16.7221 -18.37 182.729
16.4611 -17.8432 179.903
16.5001 -17.7945 180.296
16.5976 -17.6328 179.5
16.3527 -17.3943 178.712
16.5248 -17.3901 178.709
16.6968 -17.3859 178.706
16.6968 -17.219 178.703
16.6967 -17.0521 178.7
16.9112 -15.7744 175.597
17.0069 -15.5411 174.837
17.0457 -15.4889 175.208
16.9133 -15.3614 175.586
16.7804 -15.2334 175.966
16.7803 -15.069 175.963
16.911 -14.9546 175.583
16.7419 -14.7942 175.583
16.911 -14.7906 175.581
16.7418 -14.6302 175.58
16.911 -14.6266 175.578
16.778 -14.4968 175.957
16.8724 -14.3534 175.199
16.9109 -14.2987 175.572
16.9681 -14.1268 174.442
16.9109 -14.1347 175.569
16.9318 -13.9346 174.066
16.8 -13.8043 174.439
16.968 -13.638 174.434
16.968 -13.4751 174.431
16.9679 -13.3122 174.428
16.9679 -13.1493 174.426
17.0992 -12.956 174.047
16.9678 -12.8235 174.42
16.077 -5.96091 183.384
16.0406 -5.77659 182.968
16.0392 -5.52259 182.966
16.0391 -5.35141 182.964
16.039 -5.18022 182.961
16.0388 -5.00904 182.958
16.0015 -4.74454 182.545
16.0386 -4.66666 182.953
16.0023 -4.48558 182.538
16.0383 -4.32429 182.947
16.0381 -4.15309 182.945
16.038 -3.9819 182.942
16.0368 -3.72785 182.94
16.0366 -3.55665 182.938
15.9331 -3.48512 183.766
16.0365 -3.38545 182.935
15.9329 -3.31313 183.763
15.9327 -3.14114 183.761
15.9688 -2.97574 184.175
16.004 -2.72596 184.593
15.9313 -2.54188 183.754
15.7898 -2.37635 184.171
15.9673 -2.37515 184.168
15.7897 -2.20393 184.168
15.7895 -2.03152 184.166
15.8614 -1.86739 185.004
15.8269 -1.85781 184.578
15.6799 0.0258753 187.123
15.6437 0.20067 186.689
15.6796 0.551599 187.115
15.4985 1.60271 187.101
15.6787 1.77833 187.096
15.4982 1.95328 187.096
15.6788 2.04391 187.09
15.6786 2.21917 187.088
15.6423 2.38902 186.654
15.6062 2.55811 186.222
15.606 2.73257 186.219
15.6421 2.82886 186.646
15.6059 2.99696 186.214
15.642 3.09385 186.641
15.6418 3.26871 186.638
15.6414 3.52832 186.635
15.6412 3.70319 186.633
15.641 3.87806 186.63
15.4253 4.04386 186.201
14.6983 5.53014 195.665
14.8151 5.68627 194.716
14.9304 6.02258 193.774
14.8945 6.18975 193.308
14.8943 6.37103 193.306
14.8941 6.55231 193.303
14.8584 6.71786 192.84
14.7426 6.93175 193.765
14.7071 7.09683 193.299
14.8581 7.16729 192.834
15.9624 7.88737 209.798
16.0399 7.82687 208.175
15.9211 8.06347 209.256
14.8577 7.52902 192.828
15.9209 8.2595 209.253
14.7417 7.92866 193.751
12.8602 12.6638 212.084
12.86 12.8631 212.081
13.1988 13.1897 210.955
13.1308 13.4153 209.854
13.1306 13.6125 209.851
13.0625 13.7395 208.763
13.2636 13.7375 208.757
13.2634 13.9336 208.755
13.4637 13.8364 208.751
13.229 14.094 208.214
13.3959 14.1509 207.67
13.1956 14.3482 207.673
13.3967 14.4406 207.665
13.3622 14.5989 207.13
13.3278 14.7564 206.597
13.3951 14.9314 207.66
13.4921 14.9107 206.062
13.3274 15.1446 206.591
13.4917 15.298 206.056
13.6552 15.4505 205.524
14.4977 17.6363 195.494
14.4974 17.8199 195.492
14.7303 18.5561 193.597
14.801 18.8266 194.528
14.8007 19.0093 194.526
15.1072 20.5748 191.262
15.2552 20.7031 190.805
15.2549 20.8823 190.803
15.1828 20.9644 189.902
15.1825 21.1428 189.9
15.3293 21.2688 189.449
15.2931 21.3975 189.003
15.2928 21.5751 189
15.2925 21.7526 188.998
15.4382 21.8765 188.552
15.4379 22.0536 188.55
15.4376 22.2308 188.547
15.4013 22.3567 188.105
15.401 22.5334 188.103
15.5797 24.8016 185.894
15.6153 25.0328 186.321
15.615 25.2079 186.319
15.7221 25.0903 185.461
15.7217 25.2646 185.458
15.7214 25.4389 185.456
15.7211 25.6131 185.454
15.8631 25.7254 185.025
15.8628 25.8992 185.022
15.8624 26.0731 185.02
15.8258 26.1881 184.594
15.7906 26.9051 184.158
15.9659 26.8176 184.162
15.7903 27.0782 184.156
15.79 27.2512 184.153
15.7896 27.4243 184.151
15.9305 27.5314 183.728
15.9302 27.7041 183.726
15.9298 27.8768 183.724
15.9295 28.0495 183.721
16.0336 27.9204 182.887
16.0697 28.1548 183.301
16.0329 28.2641 182.882
15.9963 28.3729 182.466
15.9959 28.5444 182.463
15.9956 28.7159 182.461
15.9952 28.8875 182.459
15.9949 29.059 182.456
16.1336 29.3323 182.039
16.1332 29.5034 182.037
16.3111 29.752 182.03
16.274 29.857 181.617
16.2371 29.9616 181.206
16.2368 30.1319 181.204
16.2364 30.3022 181.201
16.236 30.4726 181.199
16.2357 30.6429 181.197
16.1989 30.7455 180.788
16.1986 30.9155 180.785
16.1982 31.0854 180.783
16.1978 31.2554 180.781
16.1974 31.4254 180.778
16.1971 31.5953 180.776
16.1967 31.7653 180.774
16.1963 31.9353 180.771
16.1597 32.0348 180.364
16.2968 32.1289 179.959
16.159 32.3741 180.359
16.3329 32.369 180.36
16.2961 32.4674 179.955
16.4726 32.5433 179.95
16.2987 32.7176 179.947
16.3987 32.7384 179.144
16.4349 32.9787 179.542
16.4345 33.1475 179.539
16.3976 33.2437 179.137
16.3972 33.4122 179.135
16.3968 33.5806 179.133
16.3965 33.7491 179.13
16.3961 33.9175 179.128
16.3957 34.086 179.126
16.3953 34.2545 179.124
16.3949 34.4229 179.121
16.3582 34.5162 178.721
16.3941 34.7599 179.117
16.4932 34.7713 178.322
16.357 35.0205 178.714
16.4924 35.1068 178.317
16.492 35.2745 178.315
16.4916 35.4422 178.313
16.4912 35.6099 178.31
16.4578 35.7801 177.908
16.4938 36.0255 178.3
16.457 36.1148 177.903
16.4931 36.3609 178.295
16.6317 36.3564 177.896
16.581 36.1261 177.525
16.5943 36.6118 177.499
16.594 36.7787 177.496
16.5936 36.9457 177.494
16.5932 37.1127 177.492
16.5928 37.2796 177.49
16.5924 37.4466 177.487
16.5921 37.6136 177.485
16.6283 37.8624 177.876
16.6279 38.0297 177.873
16.5909 38.1145 177.478
16.554 38.199 177.085
16.5901 38.4485 177.474
16.5533 38.5322 177.08
16.5529 38.6989 177.078
16.5525 38.8655 177.076
16.5521 39.0321 177.074
16.5517 39.1988 177.071
16.6896 39.1875 176.677
16.6892 39.3538 176.675
16.6888 39.52 176.673
16.6884 39.6863 176.671
16.688 39.8525 176.668
16.6877 40.0188 176.666
16.6873 40.185 176.664
16.6869 40.3513 176.662
16.6865 40.5175 176.659
16.6861 40.6838 176.657
16.6492 40.7624 176.267
16.6853 41.0163 176.653
16.6444 41.0154 176.27
16.644 41.1813 176.267
16.6435 41.3472 176.265
16.6431 41.5132 176.263
16.6427 41.6791 176.261
16.6423 41.845 176.259
16.6419 42.011 176.256
16.7747 42.0801 175.871
16.6775 42.434 176.64
16.7784 42.3242 175.861
16.778 42.4897 175.859
16.7175 42.9378 177.018
16.7171 43.1045 177.015
16.4736 43.0918 176.233
16.4732 43.2578 176.231
16.7573 43.6108 177.394
16.6226 43.8794 177.783
16.6301 43.1813 176.253
16.2262 45.6146 180.962
14.7862 -32.1479 192.055
14.8965 -31.9074 191.154
14.9358 -31.8872 191.594
14.901 -31.6354 191.142
15.0889 -31.5344 191.126
15.0538 -31.2841 190.676
15.0933 -31.2625 191.113
15.019 -30.8572 190.224
15.0191 -30.6795 190.221
15.0895 -30.6421 191.11
15.0153 -30.2395 190.22
15.0154 -30.0618 190.217
15.0546 -30.0376 190.653
15.0196 -29.7913 190.205
15.0548 -29.6815 190.647
14.9064 -29.5784 191.097
15.0198 -29.436 190.199
14.9065 -29.3999 191.094
14.9066 -29.2214 191.091
14.9067 -29.0429 191.087
14.9068 -28.8644 191.084
14.9068 -28.6859 191.081
14.9381 -28.4876 191.533
14.9031 -28.2435 191.081
14.7889 -28.0221 191.981
14.789 -27.8427 191.978
14.824 -27.7274 192.429
14.824 -27.5477 192.426
14.7085 -27.5019 193.343
14.7086 -27.3213 193.34
14.7086 -27.1406 193.337
14.8242 -27.0083 192.417
14.7087 -26.9599 193.334
14.8557 -26.8045 192.875
14.6703 -26.6308 192.878
14.7088 -26.5986 193.327
14.7089 -26.418 193.324
14.7053 -26.1507 193.327
14.7054 -25.9701 193.323
14.636 -25.6699 192.406
14.7405 -25.6685 193.778
14.589 -25.3717 194.24
14.589 -25.1902 194.237
14.6239 -25.0673 194.699
14.4714 -24.7675 195.166
14.4368 -24.5274 194.695
15.7464 -23.1174 192.326
15.6758 -22.9181 191.414
15.3067 -21.9759 187.027
15.3804 -21.984 187.884
15.3008 -21.4584 187.029
15.4454 -21.2306 186.593
15.4101 -21.0091 186.162
15.5894 -20.6561 186.152
15.5539 -20.4364 185.724
15.5923 -20.3918 186.142
15.5568 -20.1727 185.714
15.5952 -20.1276 186.132
15.4161 -19.9585 186.133
16.4469 -18.7141 183.561
16.1504 -18.0591 180.312
16.2494 -17.8961 179.516
16.4248 -17.8047 179.507
16.3527 -17.5613 178.715
16.3527 -17.3943 178.712
16.8385 -15.7081 174.843
16.706 -15.5813 175.219
16.7059 -15.4177 175.216
16.7059 -15.254 175.213
16.7059 -15.0904 175.21
16.7059 -14.9267 175.208
16.7058 -14.763 175.205
16.7058 -14.5994 175.202
16.7057 -14.4357 175.199
16.5984 -14.1824 174.07
16.7682 -14.0947 174.063
16.7099 -14.1025 175.185
16.7323 -13.903 173.688
16.7459 -13.9683 175.561
16.8785 -13.7718 175.178
17.0105 -13.5762 174.796
16.8038 -13.3096 174.423
16.974 -13.3848 174.418
16.7678 -13.1192 174.047
16.8993 -12.9263 173.67
16.8632 -12.7375 173.297
16.8991 -12.6018 173.665
17.03 -12.4106 173.29
16.8989 -12.2774 173.659
16.8988 -12.1152 173.656
16.8987 -11.9529 173.654
16.8986 -11.7907 173.651
16.8625 -11.6043 173.278
16.7669 -11.4932 174.019
16.8966 -11.388 173.648
16.8604 -11.2024 173.275
16.8964 -11.0635 173.642
16.8963 -10.9013 173.64
16.8962 -10.7391 173.637
16.8961 -10.5768 173.634
16.896 -10.4146 173.632
16.8959 -10.2524 173.629
16.8957 -10.0901 173.626
16.8956 -9.92789 173.623
16.8955 -9.76565 173.621
16.8954 -9.60342 173.618
16.8953 -9.44118 173.615
16.9313 -9.29836 173.985
16.895 -9.1167 173.61
16.8949 -8.95446 173.607
16.8948 -8.79221 173.605
16.9308 -8.64804 173.974
16.763 -8.4878 173.973
16.8569 -8.37187 173.231
16.8929 -8.22712 173.598
16.7612 -8.08401 173.969
16.6646 -7.79361 174.714
16.6287 -7.61425 174.336
16.6644 -7.46693 174.709
16.7002 -7.31899 175.083
16.7 -7.15531 175.081
16.736 -7.0064 175.456
16.0046 -5.76388 182.556
15.722 -5.53847 183.386
15.8642 -5.60727 182.968
15.7219 -5.36684 183.383
15.8616 -5.27034 182.968
15.7206 -5.11213 183.381
15.8603 -5.01625 182.966
15.755 -4.86819 183.795
15.8591 -4.76215 182.964
15.7549 -4.69617 183.793
15.8591 -4.59092 182.961
15.7547 -4.52415 183.79
15.859 -4.41969 182.959
15.7546 -4.35213 183.787
15.8589 -4.24845 182.956
15.7545 -4.1801 183.784
15.7188 -3.9992 183.366
15.7553 -3.91933 183.778
15.7196 -3.73902 183.36
15.7561 -3.65858 183.772
15.7559 -3.48655 183.769
15.7558 -3.31453 183.766
15.7556 -3.14251 183.763
15.6137 -2.97841 184.181
15.7545 -2.88718 183.762
15.6126 -2.72245 184.179
15.6124 -2.55 184.177
15.6123 -2.37755 184.174
15.6121 -2.2051 184.171
15.6484 -2.12089 184.587
15.5048 -1.8696 185.01
15.6466 -1.78062 184.586
15.5038 -1.6124 185.007
15.5756 -1.52992 185.853
15.5043 -1.34983 185.001
15.5753 -1.18183 185.848
15.5751 -1.00779 185.845
15.3605 -0.832793 185.419
15.431 -0.662058 186.27
15.4308 -0.487586 186.267
15.2862 -0.314622 186.697
15.3952 -0.312418 185.837
15.3214 -0.140027 187.125
15.4659 0.0359267 186.689
15.321 0.210574 187.12
16.5611 0.294916 182.87
16.7373 0.295576 182.867
15.2849 0.469777 186.686
15.2847 0.644687 186.684
15.2846 0.819599 186.681
15.2844 0.994512 186.678
15.2842 1.16943 186.675
15.4284 1.34178 186.241
15.2839 1.51926 186.67
15.4281 1.69076 186.235
15.3188 1.87333 187.096
15.3186 2.04865 187.094
15.3185 2.22397 187.091
15.3183 2.39929 187.088
15.3181 2.57461 187.086
15.4625 2.74392 186.649
15.3177 2.92526 187.08
15.3175 3.10059 187.078
15.3173 3.27591 187.075
15.2815 3.52825 186.641
15.2813 3.70318 186.638
15.4255 3.86935 186.204
15.2809 4.05306 186.633
15.4608 4.053 186.63
15.2807 4.228 186.63
15.4606 4.22791 186.628
15.2805 4.40294 186.627
14.6628 5.61133 195.19
14.7086 5.8276 193.317
14.6733 5.99486 192.854
14.6731 6.17575 192.851
14.6729 6.35664 192.848
14.6727 6.53754 192.846
14.6725 6.71843 192.843
14.6723 6.89933 192.84
14.6721 7.08023 192.838
14.672 7.34886 192.834
14.5205 7.54816 193.296
15.7198 8.26063 209.265
15.8394 8.21797 208.182
14.4024 8.13124 194.22
13.029 13.509 208.227
12.9952 13.6701 207.688
12.995 13.8653 207.686
12.9948 14.0605 207.683
12.9946 14.2557 207.68
13.1267 14.5702 206.606
13.3249 14.4739 206.604
13.1265 14.7644 206.604
13.2925 14.8191 206.069
13.2923 15.0128 206.066
13.2582 15.1684 205.539
13.3892 15.1838 204.49
13.258 15.3616 205.536
13.423 15.4144 205.007
13.2252 15.6094 205.008
13.3547 15.7213 203.964
13.5843 15.857 204.477
13.5155 15.9697 203.443
14.4262 18.6496 194.536
14.4259 18.8324 194.533
14.5781 18.9674 194.06
14.4254 19.198 194.528
14.5772 19.5144 194.053
14.6583 19.5553 192.657
14.658 19.7364 192.655
14.7373 20.1349 191.274
14.8862 20.2644 190.817
14.9566 20.5389 191.722
14.8872 20.7096 190.809
14.9645 20.9194 189.457
15.0348 21.195 190.349
15.0342 21.5527 190.344
15.1105 21.5784 189.002
15.1102 21.756 188.999
15.0746 21.8833 188.555
15.0743 22.0605 188.552
15.074 22.2377 188.55
15.2199 22.3602 188.106
15.2196 22.5369 188.104
15.4001 24.9802 185.892
15.3643 25.0982 185.461
15.3994 25.3296 185.887
15.5072 25.2117 185.033
15.5069 25.3856 185.03
15.5422 25.6172 185.454
15.5062 25.7334 185.026
15.5059 25.9074 185.023
15.5055 26.0813 185.021
15.5052 26.2552 185.018
15.5049 26.4291 185.016
15.5045 26.603 185.014
15.4687 26.7168 184.587
15.6467 26.7127 184.587
15.6464 26.8862 184.585
15.6484 27.1432 184.578
15.6124 27.2555 184.153
15.612 27.4286 184.151
15.5761 27.5401 183.728
15.7172 27.6467 183.308
15.7168 27.819 183.305
15.7523 28.0539 183.721
15.7161 28.1637 183.301
15.7158 28.336 183.298
15.7154 28.5083 183.296
15.8199 28.5489 182.463
15.8196 28.7204 182.461
15.8192 28.892 182.458
15.9614 29.0769 182.039
15.9251 29.1834 181.626
15.9247 29.3541 181.623
15.9604 29.5902 182.032
15.8855 29.5484 181.215
15.8522 29.735 180.8
16.0985 30.0325 181.614
15.8872 30.1413 181.202
16.0256 30.2404 180.794
16.0253 30.4103 180.792
16.0249 30.5803 180.789
15.9887 30.6828 180.382
16.0242 30.9203 180.785
16.0238 31.0903 180.782
15.9876 31.1917 180.375
16.0231 31.4303 180.778
15.9868 31.5309 180.37
16.0223 31.7703 180.773
16.022 31.9403 180.771
16.1236 31.9647 179.961
16.1232 32.1339 179.958
16.224 32.1574 179.156
16.0866 32.4015 179.552
16.1221 32.6416 179.951
16.0858 32.7392 179.547
16.0885 32.9889 179.539
16.0524 33.0855 179.137
16.2248 33.2489 179.136
16.0874 33.4955 179.532
16.2276 33.498 179.128
16.0902 33.7452 179.524
16.0899 33.9141 179.522
16.0895 34.083 179.52
16.0534 34.1771 179.117
16.2258 34.3404 179.116
16.1894 34.4338 178.716
16.1891 34.6019 178.714
16.3212 34.7767 178.32
16.3208 34.9445 178.318
16.3204 35.1122 178.316
16.32 35.28 178.313
16.3558 35.5248 178.707
16.3554 35.6929 178.705
16.3188 35.7832 178.307
16.2824 35.8731 177.91
16.2854 36.1204 177.901
16.2851 36.2878 177.899
16.2847 36.4551 177.897
16.2843 36.6225 177.894
16.2839 36.7899 177.892
16.2835 36.9573 177.89
16.382 37.1255 177.103
16.4177 37.3728 177.492
16.3812 37.4588 177.098
16.3808 37.6255 177.096
16.4201 37.9534 177.479
16.38 37.9588 177.092
16.3796 38.1255 177.089
16.3432 38.2097 176.698
16.5132 38.3702 176.698
16.5128 38.5364 176.695
16.3779 38.7921 177.08
16.5483 38.9528 177.08
16.5116 39.0353 176.689
16.515 39.2807 176.68
16.5146 39.447 176.678
16.5142 39.6133 176.675
16.5138 39.7796 176.673
16.5134 39.9458 176.671
16.513 40.1121 176.669
16.5126 40.2784 176.666
16.5122 40.4447 176.664
16.5118 40.611 176.662
16.5113 40.7773 176.66
16.5109 40.9436 176.657
16.5105 41.1099 176.655
16.474 41.1876 176.265
16.4736 41.3535 176.263
16.4731 41.5195 176.261
16.4727 41.6854 176.258
16.4723 41.8514 176.256
16.4719 42.0173 176.254
16.4715 42.1833 176.252
16.471 42.3493 176.249
16.4346 42.4241 175.861
16.3984 42.4985 175.474
16.5422 43.0321 177.02
16.3706 43.3721 177.013
16.2352 43.6395 177.4
16.1991 43.712 177.006
16.4102 43.8792 177.393
16.2659 43.9898 177.796
15.3585 86.6172 187.118
15.4661 86.2078 186.248
15.2779 86.3178 186.254
15.5015 86.5831 186.683
14.6313 -32.6839 192.531
14.6315 -32.504 192.528
14.9754 -31.3268 189.806
14.8663 -31.3847 190.691
14.8318 -31.1352 190.242
14.8707 -31.1134 190.678
14.8361 -30.8645 190.229
14.8362 -30.6868 190.226
14.8363 -30.5091 190.223
14.8364 -30.3314 190.22
14.8365 -30.1537 190.217
14.8366 -29.9761 190.213
14.8367 -29.7984 190.21
14.8368 -29.6207 190.207
14.8716 -29.5105 190.649
14.8717 -29.3324 190.646
14.723 -29.0498 191.093
14.7576 -28.9378 191.539
14.7192 -28.6074 191.092
14.7501 -28.4088 191.545
14.6003 -28.3019 191.999
14.7813 -28.0299 191.996
14.6312 -27.9217 192.452
14.6697 -27.8926 192.9
14.6352 -27.6481 192.44
14.6736 -27.6183 192.888
14.7854 -27.3982 191.978
14.6737 -27.4381 192.885
14.6738 -27.2578 192.881
14.6738 -27.0776 192.878
14.5228 -26.9665 193.339
14.5229 -26.7858 193.336
14.5229 -26.6051 193.333
14.5193 -26.3378 193.335
14.5539 -26.2182 193.793
14.3676 -26.0433 193.795
14.554 -26.037 193.79
14.3677 -25.8622 193.792
14.3677 -25.681 193.789
14.3678 -25.4998 193.786
14.3678 -25.3186 193.783
14.4022 -25.1963 194.243
14.4022 -25.0147 194.24
14.368 -24.7751 193.773
14.2495 -24.7154 194.704
14.1638 -24.7134 196.116
14.4024 -24.4699 194.23
15.1614 -22.3812 187.469
15.6791 -23.1826 191.412
15.3419 -22.2006 187.461
15.3067 -21.9759 187.027
15.2716 -21.7521 186.595
15.3098 -21.7102 187.017
15.3807 -21.476 185.735
15.2747 -21.4871 186.584
15.4543 -21.4819 186.58
15.1674 -21.0867 185.309
15.3458 -21.0817 185.306
15.3098 -21.1859 187.008
15.3838 -21.0387 185.722
15.2747 -20.964 186.575
15.419 -20.7379 186.141
15.3838 -20.518 185.713
15.3838 -20.3444 185.71
15.5271 -20.121 185.28
16.0937 -19.0664 183.576
15.8735 -18.485 181.127
16.1639 -18.8479 182.331
16.0122 -18.2715 180.719
16.3449 -18.8367 182.316
16.074 -17.8196 179.522
16.0034 -17.5759 178.73
16.0034 -17.4089 178.727
16.5371 -15.094 175.212
16.5015 -14.8989 174.833
16.6699 -14.8953 174.831
16.5014 -14.7355 174.83
16.6699 -14.732 174.828
16.5014 -14.5722 174.827
16.6699 -14.5687 174.825
16.5014 -14.4089 174.824
16.632 -14.2966 174.449
16.4992 -14.1668 174.824
16.5963 -13.9414 174.07
16.6339 -13.8862 174.438
16.5983 -13.6945 174.062
16.6359 -13.6388 174.43
16.7679 -13.4443 174.052
16.6001 -13.285 174.051
16.73 -13.1758 173.68
16.598 -13.044 174.051
16.7299 -12.8513 173.674
16.8253 -12.6331 172.93
16.6941 -12.5006 173.298
16.7316 -12.4427 173.664
16.827 -12.2263 172.92
16.7314 -12.1182 173.658
16.8269 -12.0648 172.917
16.7313 -11.956 173.655
16.8268 -11.9032 172.915
16.7312 -11.7937 173.653
16.8267 -11.7417 172.912
16.8625 -11.6043 173.278
16.6953 -11.4453 173.277
16.6952 -11.2834 173.274
16.7308 -11.1447 173.642
16.7307 -10.9824 173.639
16.7288 -10.7418 173.639
16.7287 -10.5796 173.636
16.7286 -10.4173 173.633
16.7285 -10.255 173.63
16.7284 -10.0928 173.628
16.7282 -9.9305 173.625
16.7281 -9.76824 173.622
16.728 -9.60597 173.62
16.7279 -9.4437 173.617
16.7278 -9.28143 173.614
16.7277 -9.11915 173.612
16.5956 -8.97807 173.982
16.7259 -8.8785 173.611
16.5584 -8.71858 173.609
16.7243 -8.63784 173.609
16.5923 -8.49562 173.98
16.7227 -8.39716 173.608
16.7226 -8.23487 173.605
16.7226 -8.07258 173.603
16.5905 -7.92905 173.973
16.6261 -7.78271 174.345
16.6246 -7.54093 174.343
16.4919 -7.39553 174.717
16.6604 -7.39346 174.716
16.4918 -7.23214 174.714
16.6603 -7.2301 174.713
16.4917 -7.06876 174.712
16.2834 -6.07483 181.738
15.863 -5.69563 182.972
15.6865 -5.52624 182.972
15.51 -5.35676 182.971
15.6499 -5.26047 182.558
15.6863 -5.18373 182.966
15.6508 -5.00144 182.551
15.6507 -4.83056 182.549
15.6505 -4.65968 182.546
15.6504 -4.4888 182.543
15.6856 -4.32746 182.953
15.5441 -4.16695 183.366
15.649 -4.0643 182.539
15.5429 -3.91215 183.365
15.6832 -3.81909 182.949
15.5418 -3.65733 183.363
15.4357 -3.5861 184.195
15.5417 -3.48565 183.36
15.4356 -3.41362 184.193
15.5415 -3.31397 183.357
15.5776 -3.23259 183.77
15.4353 -3.06867 184.187
15.5404 -2.88744 183.352
15.3983 -2.72301 183.768
15.5395 -2.63259 183.35
15.5038 -2.56803 185.025
15.4331 -2.3841 184.18
15.469 -2.3003 184.597
15.4689 -2.12743 184.594
15.5041 -1.95893 185.013
15.4686 -1.78168 184.588
15.3605 -1.61706 185.434
15.3253 -1.44014 185.007
15.361 -1.35385 185.428
15.3608 -1.18016 185.425
15.2167 -1.00967 185.85
15.3599 -0.92231 185.423
15.2516 -0.837438 186.275
15.2164 -0.661451 185.845
15.2162 -0.487338 185.842
15.2511 -0.313921 186.267
15.2509 -0.139413 186.264
16.3847 0.0348046 182.879
15.3561 0.120514 187.557
15.2499 0.294199 186.259
15.2497 0.468713 186.257
15.2496 0.643229 186.254
15.2846 0.819599 186.681
15.2492 0.992265 186.249
15.249 1.16678 186.246
15.2489 1.34131 186.243
15.2487 1.51583 186.241
15.2485 1.69035 186.238
15.2483 1.86488 186.235
15.2131 2.03481 185.805
15.2479 2.21393 186.23
15.2478 2.38846 186.227
15.2827 2.56879 186.654
15.2825 2.74372 186.652
15.2472 2.91206 186.219
15.247 3.08659 186.217
15.2468 3.26113 186.214
15.2113 3.51237 185.783
15.2111 3.68651 185.781
15.2459 3.86937 186.206
15.2457 4.04392 186.203
15.2455 4.21846 186.2
15.1005 4.40306 186.63
15.2451 4.56756 186.195
14.4052 5.4914 194.258
14.5226 5.55328 193.325
14.3361 5.73501 193.326
14.5223 5.828 193.321
14.5221 6.00935 193.318
14.4872 6.17621 192.854
14.487 6.35714 192.851
14.4868 6.53807 192.849
14.4866 6.719 192.846
14.4864 6.89993 192.843
14.4861 7.08086 192.841
14.4516 7.33241 192.378
14.3341 7.54889 193.299
15.6393 8.21907 208.193
14.3337 7.91169 193.293
12.9295 13.6956 206.622
12.9617 13.8303 207.152
12.9282 13.9898 206.619
12.928 14.184 206.616
12.9278 14.3782 206.613
12.8945 14.5358 206.083
12.9273 14.7666 206.608
13.0939 14.8214 206.073
13.0603 14.9775 205.546
13.028 15.2263 205.018
13.2256 15.224 205.014
13.0278 15.419 205.015
13.2254 15.4167 205.011
13.1917 15.5706 204.488
13.1247 15.876 203.451
13.3545 15.913 203.962
13.2871 16.0251 202.932
13.5167 16.0623 203.441
14.2725 19.0632 195.003
14.3559 19.2895 193.591
14.3556 19.4715 193.589
14.6571 20.2795 192.647
14.8515 21.0194 190.353
14.816 21.3278 189.9
14.893 21.7095 188.558
15.0391 22.0101 188.112
15.0038 22.1362 187.671
14.9686 22.2618 187.232
14.9683 22.4377 187.23
15.0379 22.7172 188.102
15.2208 24.984 185.892
15.2204 25.1588 185.89
15.364 25.2725 185.459
15.2198 25.5083 185.885
15.3633 25.6212 185.454
15.363 25.7955 185.452
15.3274 25.9114 185.023
15.3623 26.1442 185.447
15.3267 26.2592 185.018
15.5052 26.2552 185.018
15.3264 26.4332 185.016
15.4337 26.4838 184.167
15.4333 26.657 184.165
15.4683 26.8904 184.585
15.4326 27.0033 184.16
15.4347 27.2597 184.153
15.4344 27.4329 184.15
15.434 27.606 184.148
15.4337 27.7792 184.146
15.5403 27.651 183.307
15.4334 27.9523 184.143
15.54 27.8233 183.305
15.5751 28.0583 183.721
15.5747 28.231 183.719
15.539 28.3404 183.298
15.5386 28.5127 183.295
15.6443 28.3817 182.465
15.6439 28.5533 182.462
15.6436 28.7249 182.46
15.6432 28.8964 182.458
15.6429 29.068 182.455
15.6072 29.1748 182.04
15.7469 29.2766 181.627
15.7111 29.3825 181.216
15.7488 29.7002 181.618
15.8526 29.565 180.802
15.7485 29.871 181.615
15.8522 29.735 180.8
15.8875 29.9709 181.205
15.8515 30.075 180.795
15.8512 30.245 180.793
15.8508 30.415 180.791
15.8505 30.585 180.788
15.8501 30.755 180.786
15.8498 30.9251 180.783
15.8139 31.0268 180.376
15.8135 31.1965 180.373
15.8487 31.4351 180.776
15.8483 31.6051 180.774
15.8154 31.7867 180.361
15.9891 31.9515 180.36
15.8502 32.1967 180.762
15.8144 32.2957 180.354
15.9523 32.3892 179.949
16.0508 32.3308 179.152
16.0504 32.4993 179.15
16.05 32.6678 179.147
16.0527 32.917 179.139
16.0524 33.0855 179.137
16.0164 33.1816 178.736
16.016 33.3498 178.734
16.0156 33.5179 178.732
16.0152 33.686 178.729
16.0149 33.8542 178.727
16.0145 34.0223 178.725
16.0141 34.1905 178.722
16.0137 34.3586 178.72
16.0134 34.5268 178.718
16.013 34.6949 178.715
16.0126 34.8631 178.713
16.0122 35.0312 178.711
16.1123 35.2089 177.917
16.1119 35.3763 177.914
16.1116 35.5437 177.912
16.1112 35.7111 177.91
16.1464 35.9564 178.302
16.1104 36.0459 177.905
16.2495 36.0423 177.508
16.1134 36.2933 177.897
16.2527 36.289 177.5
16.2523 36.456 177.497
16.2162 36.5441 177.104
16.2516 36.7901 177.493
16.2119 36.7978 177.105
16.2472 37.0444 177.494
16.2468 37.2115 177.492
16.2107 37.2978 177.098
16.2103 37.4645 177.096
16.2457 37.7126 177.485
16.2095 37.7979 177.092
16.2091 37.9645 177.089
16.2087 38.1312 177.087
16.2083 38.2979 177.085
16.2079 38.4646 177.083
16.2075 38.6313 177.08
16.2071 38.798 177.078
16.2067 38.9647 177.076
16.1707 39.0471 176.684
16.1703 39.2134 176.681
16.3408 39.2075 176.684
16.1699 39.3797 176.679
16.3442 39.453 176.675
16.3438 39.6193 176.673
16.2085 39.8775 177.058
16.2081 40.0442 177.055
16.3111 39.945 176.273
16.1761 40.2033 176.656
16.3461 40.3636 176.657
16.3457 40.5299 176.655
16.3056 40.5299 176.271
16.341 40.7835 176.657
16.3048 40.8618 176.267
16.3044 41.0278 176.264
16.304 41.1937 176.262
16.3035 41.3597 176.26
16.3031 41.5257 176.258
16.3027 41.6917 176.255
16.4408 41.6746 175.865
16.3064 41.9364 176.246
16.4446 41.9188 175.855
16.346 42.272 176.625
16.3456 42.4383 176.622
16.3052 42.4343 176.239
16.3406 42.6921 176.625
16.3002 42.6876 176.242
16.2998 42.8536 176.24
16.2361 43.3053 177.404
16.1332 43.2706 176.225
16.3263 43.1209 176.638
16.3113 93.7161 176.694
14.6056 -32.5998 192.061
14.8619 -31.656 190.703
14.6787 -31.4853 190.705
14.6446 -31.2354 190.256
14.828 -30.695 190.241
14.7936 -30.4476 189.795
14.6454 -30.3467 190.24
14.7898 -30.1856 189.797
14.6415 -30.084 190.243
14.8245 -30.077 190.238
14.6417 -29.9063 190.239
14.6761 -29.7968 190.682
14.642 -29.5507 190.233
14.6803 -29.5255 190.67
14.6461 -29.2801 190.221
14.6844 -29.2543 190.657
14.5392 -29.0567 191.098
14.5695 -28.8592 191.551
14.5696 -28.6802 191.547
14.5355 -28.4356 191.094
14.5356 -28.257 191.091
14.4195 -28.215 191.995
14.4196 -28.0355 191.992
14.4197 -27.8561 191.989
14.4538 -27.7408 192.44
14.4539 -27.5609 192.437
14.3367 -27.3345 193.351
14.3368 -27.1537 193.348
14.3368 -26.973 193.345
14.3369 -26.7922 193.341
14.337 -26.6115 193.338
14.3334 -26.3441 193.341
14.3334 -26.1634 193.338
14.3676 -26.0433 193.795
14.3336 -25.8019 193.331
14.3677 -25.681 193.789
14.1814 -25.506 193.791
14.3678 -25.4998 193.786
14.2153 -25.3841 194.251
14.3337 -25.2596 193.322
14.2153 -25.2024 194.248
14.2154 -25.0208 194.245
14.0286 -24.6635 194.244
14.0622 -24.5393 194.706
15.0187 -22.6972 187.905
14.981 -22.3865 187.473
15.0888 -22.1968 186.612
14.9092 -22.0276 186.613
15.092 -21.9317 186.602
15.2019 -21.6547 185.742
15.2398 -21.6129 186.16
15.205 -21.3909 185.732
15.3457 -21.2549 185.309
15.0576 -21.1864 186.162
15.199 -21.0505 185.737
15.1991 -20.8769 185.734
15.34 -20.7421 185.311
15.1962 -20.6198 185.735
15.3401 -20.3956 185.305
15.1617 -20.2272 185.305
15.1992 -20.1824 185.722
16.0215 -18.9826 182.751
15.8409 -18.526 180.721
16.0149 -18.5216 180.718
16.0659 -18.929 183.145
16.3681 -14.7702 175.209
16.2629 -14.5146 174.079
16.335 -14.4911 174.823
16.5034 -14.1609 174.816
16.5296 -13.8774 173.319
16.47 -13.8837 174.432
16.6024 -13.6887 174.054
16.5647 -13.4195 173.682
16.5646 -13.2573 173.679
16.6963 -13.0644 173.304
16.5645 -12.9327 173.673
16.7339 -13.0077 173.669
16.4939 -12.7172 172.931
16.7318 -12.7672 173.669
16.4587 -12.5295 172.56
16.7317 -12.605 173.666
16.4937 -12.394 172.925
16.7316 -12.4427 173.664
16.5641 -12.2835 173.662
16.6603 -12.2294 172.921
16.564 -12.1213 173.66
16.6938 -12.0148 173.29
16.5267 -11.8559 173.288
16.7294 -11.8777 173.658
16.4914 -11.6696 172.916
16.7293 -11.7154 173.655
16.5265 -11.532 173.283
16.7293 -11.5532 173.652
16.6579 -11.3435 172.91
16.5635 -11.3098 173.646
16.5634 -11.1475 173.643
16.6596 -11.0983 172.902
16.5261 -10.8841 173.272
16.526 -10.7222 173.269
16.5259 -10.5602 173.266
16.5612 -10.42 173.634
16.5611 -10.2577 173.632
16.5609 -10.0954 173.629
16.5608 -9.9331 173.626
16.5607 -9.7708 173.624
16.5606 -9.6085 173.621
16.5605 -9.4462 173.618
16.5604 -9.2839 173.615
16.5249 -9.10256 173.242
16.5601 -8.9593 173.61
16.56 -8.79699 173.607
16.5598 -8.63469 173.605
16.5228 -8.37644 173.233
16.5227 -8.21447 173.23
16.5579 -8.06934 173.598
16.5578 -7.90703 173.596
16.4254 -7.76311 173.966
16.4253 -7.60043 173.963
16.5561 -7.50395 173.592
16.4604 -7.45337 174.335
16.6644 -7.46693 174.709
16.425 -7.27506 173.958
16.3624 -7.15946 175.083
16.4249 -7.11237 173.955
16.3976 -7.01051 175.459
16.3896 -6.93514 173.58
16.3621 -6.83196 175.078
16.4246 -6.787 173.95
16.362 -6.66821 175.075
15.3336 -5.35853 182.973
15.6511 -5.34319 182.557
15.4749 -5.17404 182.556
15.5097 -5.01419 182.966
15.3679 -4.8553 183.379
15.4735 -4.74947 182.552
15.3319 -4.59028 182.963
15.5083 -4.58868 182.961
15.3318 -4.41895 182.961
